0.580686 0.040532 1.623685 97 120 160
0.300981 0.027790 1.596344 52 79 89
0.573562 0.038834 1.614367 32 69 167
0.266714 0.032171 1.599626 76 110 137
0.000000 0.000000 2.000000 0 1 40
0.583850 0.042432 1.613950 47 94 193
0.270293 0.035999 1.596909 141 176 204
0.164708 0.041761 1.587027 10 20 116
0.245849 0.051142 1.588790 7 25 99
0.229634 0.052551 1.585848 0 13 110
0.071956 0.053341 1.582301 0 15 83
0.232103 0.061049 1.588439 0 28 111
0.220139 0.056585 1.585587 45 74 160
0.209167 0.059540 1.579661 150 168 232
0.231866 0.062316 1.583039 6 21 112
0.210135 0.065220 1.579376 167 189 248
0.232655 0.065996 1.579683 6 32 103
0.217288 0.069713 1.579457 156 176 248
0.247890 0.069640 1.581844 7 37 105
0.240387 0.075807 1.578999 27 37 135
0.230508 0.076925 1.574459 11 29 113
0.040258 0.080891 1.583444 0 3 103
0.386774 0.086408 1.594240 0 25 89
0.235616 0.081528 1.576522 159 188 209
-0.001029 0.081885 1.573121 0 22 104
0.215643 0.083582 1.573900 181 202 241
0.005076 0.086224 1.571728 166 187 230
0.013817 0.088339 1.570768 169 213 241
0.041085 0.091722 1.570958 162 194 227
0.013474 0.096466 1.568731 3 23 94
0.247081 0.134143 1.676391 22 51 85
0.577230 -0.010663 1.632421 167 187 242
0.028091 0.099271 1.568262 3 47 120
0.008674 0.101607 1.567371 180 199 247
0.035787 0.102950 1.566578 1 40 106
0.044704 0.108599 1.565933 147 182 212
-0.158761 0.203549 1.845354 144 152 236
0.369735 0.116784 1.581521 54 72 148
0.347501 0.121200 1.585774 70 100 170
0.193102 0.113671 1.564155 160 186 236
0.181292 0.115651 1.570118 20 34 108
0.341404 0.125751 1.574154 162 196 231
0.365655 0.127688 1.576869 18 56 106
0.335121 0.127728 1.574104 19 44 115
0.347463 0.130364 1.573484 3 41 107
0.079672 0.126977 1.560804 155 187 220
0.333074 0.131942 1.570956 175 199 247
0.370225 0.134406 1.576092 161 195 229
-0.090925 0.242349 1.860087 20 40 100
0.338336 0.137028 1.570689 14 24 120
0.079969 0.134633 1.559493 14 11 106
0.362581 0.139519 1.572684 0 20 89
0.368229 0.149535 1.571853 156 196 214
0.355065 0.151312 1.569978 174 200 255
0.160715 0.150433 1.554244 159 184 241
0.133875 0.154632 1.553097 158 193 233
0.153975 0.157466 1.552109 9 28 113
0.126411 0.160866 1.551265 146 191 214
0.141705 0.157673 1.552055 31 42 126
0.147857 0.158829 1.551310 157 180 232
0.164047 0.163075 1.551253 174 195 249
0.137218 0.164055 1.550351 145 185 220
0.154245 0.159427 1.550530 18 31 109
0.148526 0.169192 1.549566 165 193 232
0.164504 0.167415 1.552694 136 164 229
0.414828 0.175613 1.572869 17 32 118
0.130230 0.169314 1.550193 15 29 113
0.138639 0.171260 1.548920 178 202 246
0.164481 0.173702 1.548640 164 190 230
0.130904 0.177405 1.545548 161 183 226
0.145394 0.180989 1.545029 156 182 207
0.306153 0.184101 1.554466 22 38 108
0.318385 0.187635 1.566735 161 189 238
0.316882 0.192084 1.557917 22 46 120
0.211045 0.209580 1.546970 160 182 225
0.105068 0.222285 1.543824 7 19 95
0.285211 0.222449 1.543379 160 194 230
0.018866 -0.575145 1.859342 0 2 23
0.122149 -0.559899 1.844760 5 13 43
-0.085115 -0.467303 1.803528 126 161 147
0.098860 -0.406075 1.727158 174 202 223
0.371177 -0.303083 1.743986 79 79 79
0.130482 -0.306271 1.923173 135 140 146
0.237279 -0.289809 1.710530 120 121 134
0.346620 -0.261294 1.711897 157 171 189
0.000000 0.000000 2.000000 167 182 204
0.297929 -0.223614 1.699045 187 206 222
0.225232 -0.196829 1.906919 30 29 72
0.258939 -0.181202 1.668936 155 183 202
0.000000 0.000000 2.000000 174 202 222
0.451963 -0.141754 1.655675 175 197 214
0.020527 -0.163967 1.664606 110 110 143
0.000000 0.000000 2.000000 169 51 112
0.443354 -0.105824 1.700856 82 22 59
0.075201 -0.137191 1.594439 182 200 204
0.178590 -0.115387 1.635289 118 103 115
0.000000 0.000000 2.000000 111 90 99
-0.148798 -0.061055 1.631113 87 119 158
0.439662 -0.041966 1.733909 96 123 165
0.544185 -0.045336 1.641386 169 204 235
0.564108 -0.034800 1.640424 49 78 117
0.543780 -0.029313 1.634670 169 200 232
0.000000 0.000000 2.000000 57 87 131
0.523043 -0.024339 1.628048 170 209 251
0.539003 0.036621 1.842259 55 78 130
0.560688 -0.009506 1.635588 90 118 164
0.594222 -0.002765 1.632295 176 213 248
0.592022 0.008524 1.631679 16 49 135
0.546459 0.011324 1.621961 93 119 159
0.605642 0.017007 1.635621 1 36 130
0.000000 0.000000 2.000000 16 48 150
0.549781 0.020010 1.593645 46 87 197
0.213739 0.074504 1.580352 34 51 104
0.004570 0.090052 1.579468 166 187 230
0.021861 0.273718 2.123280 152 189 222
-0.001222 0.101258 1.589390 149 180 226
0.165694 0.203790 1.860932 31 57 93
0.021698 0.107110 1.564072 155 178 232
0.332831 0.291151 1.989671 159 189 243
0.040258 0.112460 1.559605 0 21 98
0.357680 0.126760 1.577719 157 191 238
0.363744 0.133716 1.579903 154 191 225
0.204055 0.207609 1.542362 42 60 129
0.148250 -0.542590 1.884828 0 2 48
-0.026953 -0.537131 1.844006 11 21 37
-0.065340 -0.525506 1.983105 107 100 99
0.057443 -0.416394 1.740341 122 123 117
0.103076 -0.405782 1.715873 177 200 219
0.475061 -0.375731 1.716919 95 22 40
0.480188 -0.360302 1.741518 57 69 14
0.000000 0.000000 2.000000 175 194 208
0.349932 -0.315426 1.739916 113 114 117
0.324524 -0.312436 1.732629 170 186 203
0.241884 -0.269293 1.704560 175 201 225
0.000000 0.000000 2.000000 92 90 83
0.363706 -0.235824 1.701471 163 191 210
0.228657 -0.246054 1.696888 115 129 146
0.000000 0.000000 2.000000 153 183 203
0.312240 -0.214969 1.872600 29 29 38
0.310530 -0.228136 1.664135 187 206 222
0.000000 0.000000 2.000000 161 181 196
0.382494 -0.216571 1.701822 88 85 69
0.351698 -0.218182 1.701057 172 188 201
0.324559 -0.216143 1.688626 161 177 200
0.415683 -0.206256 1.699104 93 87 81
0.307591 -0.206404 1.685634 83 86 105
0.244750 -0.202178 1.672358 139 142 142
0.415300 -0.189440 1.691348 43 40 68
0.309336 -0.182626 1.671923 14 26 86
0.321575 -0.183643 1.689366 5 16 73
0.385394 -0.157878 1.666813 123 121 132
0.243893 -0.161204 1.648310 159 179 199
0.453892 -0.125641 1.647766 156 74 115
0.058373 -0.145347 1.593904 167 186 182
0.151896 -0.118322 1.622841 164 178 188
0.072766 -0.071905 1.841064 51 78 108
0.207645 -0.105964 1.619839 169 192 198
0.074589 -0.117076 1.601232 107 74 83
-0.022533 -0.060192 1.852657 110 95 110
0.123143 -0.095107 1.674802 157 177 192
0.225345 -0.097599 1.619486 122 107 121
0.000000 0.000000 2.000000 2 0 24
0.309694 -0.075785 1.630695 148 178 213
0.407698 -0.071748 1.628017 92 124 165
0.000000 0.000000 2.000000 74 103 145
0.501114 -0.063537 1.641888 59 87 140
0.276051 -0.068935 1.619458 95 135 176
0.470902 -0.060274 1.623836 101 126 165
0.323431 -0.029165 1.924569 3 27 49
0.275055 -0.056571 1.612223 57 97 133
0.423390 -0.052706 1.620129 93 121 162
0.535425 -0.044505 1.641306 89 115 168
0.559147 -0.036712 1.642855 85 111 157
0.446707 -0.036474 1.632442 75 102 147
0.524602 -0.028593 1.634166 85 110 165
0.534572 0.038303 1.910267 172 203 234
0.103068 -0.040979 1.598033 106 81 92
0.497284 -0.027007 1.630057 19 52 95
0.598316 -0.014503 1.648442 88 115 163
0.123152 -0.038010 1.602495 151 175 187
0.175978 -0.025245 1.598493 110 95 110
0.478100 -0.012276 1.622616 114 153 206
0.596312 -0.000385 1.637056 175 212 255
0.616985 -0.001177 1.647894 90 117 159
0.447952 0.005057 1.629649 94 99 121
0.552245 0.009811 1.623251 169 211 225
0.539303 0.020525 1.632600 98 120 159
0.312396 0.014114 1.603617 143 173 218
0.566910 0.022532 1.614297 96 116 165
0.000000 0.000000 2.000000 0 0 22
0.584522 0.041653 1.613725 10 48 138
0.244341 0.052628 1.590172 30 45 126
0.074952 0.054111 1.580082 6 27 75
0.597622 0.080667 1.627770 154 169 200
0.216286 0.062568 1.582623 152 184 233
0.235779 0.064510 1.589385 157 186 235
0.251211 0.066718 1.579940 18 37 120
0.256085 0.082193 1.572831 10 26 121
0.213711 0.090208 1.583849 30 44 119
0.282260 0.093007 1.578985 154 189 221
0.340439 0.133337 1.570976 160 188 238
0.377487 0.151646 1.571296 45 58 122
0.000000 0.000000 2.000000 63 84 169
0.334068 0.155587 1.567838 35 53 93
0.010356 0.226870 1.743151 38 65 120
0.251705 0.240950 1.697200 45 56 114
0.322922 0.183913 1.558313 173 197 253
0.125839 0.188947 1.550289 26 46 100
-0.028883 -0.508478 1.846487 56 60 71
0.031424 -0.410378 1.756334 130 127 119
0.043118 -0.386568 1.722826 17 17 34
0.000000 0.000000 2.000000 122 120 122
0.000000 0.000000 2.000000 0 0 37
0.237798 -0.268104 1.704512 179 205 239
0.431924 -0.247459 1.719434 9 12 44
0.000000 0.000000 2.000000 98 93 84
0.428545 -0.235577 1.714391 0 0 28
0.313955 -0.212459 1.693418 129 139 183
0.312737 -0.177218 1.675067 14 26 64
0.334622 -0.175737 1.682002 116 109 134
0.411724 -0.161892 1.674716 8 13 43
0.000000 0.000000 2.000000 134 130 119
0.241084 -0.160099 1.651934 143 158 181
0.096409 -0.147246 1.631811 124 118 112
0.107708 -0.124302 1.687111 165 184 198
-0.534358 -0.029335 1.681032 107 74 83
0.444712 -0.080222 1.633493 78 105 151
0.460741 -0.083544 1.646455 166 196 231
0.000000 0.000000 2.000000 155 182 233
0.447858 -0.058734 1.632894 161 193 218
0.497348 -0.021882 1.684818 168 199 228
0.568688 -0.014787 1.634395 174 206 228
0.315301 0.006570 1.610168 144 178 216
0.560565 0.028170 1.615591 36 63 144
0.384074 0.084276 1.592555 39 58 89
0.299367 0.121703 1.581892 155 186 233
0.297591 -0.380483 1.781122 24 28 59
0.313591 -0.311935 2.020093 135 132 134
0.514020 -0.283996 1.763102 94 89 86
0.230352 -0.237680 1.693066 146 141 136
0.288688 -0.107976 1.666561 31 81 109
0.000000 0.000000 2.000000 157 187 212
0.484978 -0.082095 1.636493 92 119 164
0.411495 -0.070808 1.613160 96 122 156
0.361652 0.018271 1.614681 38 53 96
0.083387 0.119701 1.824196 25 37 89
0.274049 0.087111 1.582604 153 187 232
0.367418 0.124923 1.578505 50 66 132
0.302659 -0.365544 1.767481 0 4 51
0.499655 -0.275074 1.777815 100 94 95
0.352973 -0.288745 1.729225 0 0 27
0.060881 -0.404753 1.753035 3 5 43
0.328532 -0.351441 0.267712 145 143 141
0.375867 -0.179273 1.665583 138 133 131
0.414192 -0.166161 1.670867 5 10 57
0.000000 0.000000 2.000000 175 206 233
0.380051 -0.138788 1.664622 69 67 71
0.207081 -0.091712 1.625012 167 192 206
0.422406 -0.059178 1.625929 93 120 165
0.204620 -0.039978 1.603239 164 195 215
0.008005 -0.591432 1.972629 128 127 145
0.087952 -0.554119 1.873200 77 77 84
-0.033944 -0.411271 1.755778 64 74 82
0.340810 -0.276334 1.718772 49 61 104
0.416492 -0.239757 1.715986 80 78 82
0.406821 -0.238534 1.719528 65 70 75
0.000000 0.000000 2.000000 63 75 97
0.066332 -0.144121 1.593929 75 80 93
0.053228 -0.132846 1.591225 107 132 139
0.077689 -0.130416 1.589770 190 210 217
0.071686 -0.116660 1.579813 64 43 51
0.540416 -0.070730 1.656037 37 72 111
0.424933 -0.072069 1.629132 89 121 163
0.278884 -0.073000 1.621037 85 135 167
0.439676 -0.056409 1.624766 23 50 101
0.534704 0.011791 1.834551 108 135 178
0.303877 -0.043234 1.612348 4 37 90
0.469939 -0.030272 1.620813 75 111 186
0.529193 -0.026669 1.629583 172 204 235
0.557946 -0.014437 1.661901 64 91 146
0.567282 -0.008149 1.635380 78 105 158
0.477826 -0.012948 1.619818 75 110 169
0.545261 -0.011017 1.627270 54 86 128
0.546749 -0.004622 1.619943 114 150 184
0.579514 0.004150 1.631829 190 214 240
0.538298 0.008365 1.594131 32 65 108
0.228051 0.056443 1.583900 166 197 251
0.245312 0.056789 1.583451 166 199 241
0.229517 0.071974 1.578737 174 202 250
0.253289 0.084212 1.580068 10 26 121
0.209833 0.090313 1.572202 0 26 84
0.185066 0.112337 1.563757 20 29 106
0.361890 0.121922 1.575928 156 197 218
0.090553 0.127337 1.558890 13 37 91
0.343973 0.147553 1.569482 179 198 255
0.073644 0.216862 1.742766 20 34 134
-0.172098 0.339942 2.047336 3 31 98
0.330954 0.159833 1.566988 5 40 88
0.151527 0.168583 1.554363 154 191 227
0.155547 0.175122 1.554591 2 26 117
0.212967 0.199766 1.544022 10 41 87
0.289856 0.215960 1.547079 6 18 122
0.312066 -0.210357 1.871462 66 58 53
0.000000 0.000000 2.000000 190 104 151
0.466589 -0.029707 1.915689 81 108 155
0.527938 -0.059944 1.645804 51 76 132
0.573537 -0.055368 1.645433 29 61 103
0.444668 -0.055762 1.621276 159 189 234
0.606320 -0.133236 1.954628 64 92 138
0.157450 0.080358 2.733457 165 202 230
0.574678 -0.020657 1.641408 84 110 155
0.220728 0.053782 1.587472 52 68 148
0.021271 0.097691 1.567484 151 180 237
-0.123445 0.155579 1.569156 26 42 81
0.298205 0.093593 1.582387 20 42 82
0.212108 0.211497 1.549662 152 195 229
0.000000 0.000000 2.000000 104 101 94
0.320016 -0.228004 1.691614 75 75 77
0.000000 0.000000 2.000000 177 210 234
0.062774 -0.122086 1.581016 92 86 90
0.066717 -0.108084 1.568776 107 73 74
0.489455 -0.052625 1.629601 87 116 175
0.183324 -0.023823 1.601651 27 62 96
0.520494 0.002514 1.617501 99 118 166
0.164442 0.191602 1.822110 35 50 106
-0.012950 0.137481 1.560293 150 182 230
0.326905 0.125167 1.574682 44 64 134
0.000000 0.000000 2.000000 153 192 227
0.262835 0.220980 1.750260 171 193 251
0.159342 0.147692 1.557171 48 75 149
0.384152 -0.287834 1.728305 84 81 76
0.248514 -0.133236 1.849491 16 19 56
0.000000 0.000000 2.000000 97 125 156
0.483762 -0.050476 1.683768 71 104 147
0.203955 -0.029216 1.599985 168 192 194
0.055232 0.226351 1.834525 28 41 77
0.351378 0.138163 1.576273 156 194 234
-0.202689 0.094173 2.021327 38 65 120
0.140649 -0.205349 1.895506 146 140 132
0.000000 0.000000 2.000000 164 193 225
0.100962 -0.053746 1.829538 169 188 201
0.127857 0.291289 2.602072 107 110 110
-0.217579 0.262947 1.894275 24 39 70
0.184466 0.055080 1.594103 150 184 222
0.025423 -0.586495 1.974765 148 150 162
0.042873 -0.581163 1.976893 105 110 122
0.417282 -0.071744 1.622105 74 103 145
0.473817 -0.063801 1.639757 44 71 117
0.204351 -0.023277 1.783134 79 124 163
0.593953 -0.014583 1.655255 81 107 149
0.575360 -0.017350 1.638546 52 84 126
0.470421 -0.023874 1.616779 163 196 228
0.480175 0.043247 1.804410 88 117 168
0.580459 0.013564 1.628177 38 74 185
0.177514 0.086861 1.802883 0 1 40
0.238338 0.054867 1.585121 182 217 255
0.131628 0.137018 1.817742 119 151 202
0.221276 0.074920 1.570296 169 194 249
0.128676 0.156258 1.820489 159 185 220
0.055819 0.196528 1.765226 25 38 117
0.353975 0.124715 1.576723 32 61 120
0.351944 0.141239 1.569191 0 24 106
0.407999 0.256460 1.891684 93 111 184
0.164394 0.168902 1.554089 136 164 229
0.189825 0.213499 1.572653 21 28 106
0.227131 -0.247925 1.701434 167 182 204
0.158687 -0.138129 1.857342 174 202 222
0.681043 0.111108 1.932646 6 42 130
0.180642 0.190644 1.820727 159 189 243
0.078030 0.124585 1.568056 162 198 234
0.134854 0.169517 1.553253 141 181 208
-0.122365 0.204212 1.843962 10 18 121
0.094674 0.128629 1.563544 16 35 91
-0.524035 -0.100468 1.632447 39 65 114
0.000000 0.000000 2.000000 25 37 89
0.000000 0.000000 2.000000 175 206 233
0.310892 -0.070372 1.626067 151 178 223
0.387831 -0.315340 1.742304 9 25 67
0.000000 0.000000 2.000000 89 124 181
0.000000 0.000000 2.000000 35 68 105
0.474453 -0.017089 1.614357 67 106 176
0.303145 -0.001335 1.609343 3 30 95
0.193229 0.120816 1.561720 5 37 78
0.133998 0.151992 1.559947 0 17 109
0.146655 0.174995 1.550155 18 32 114
0.225763 0.285751 1.516461 2 19 89
0.000000 0.000000 2.000000 107 100 99
0.413923 -0.241463 1.714364 92 90 83
0.258843 -0.180307 1.668733 177 210 234
0.127653 -0.102465 1.625534 157 177 192
0.087059 0.140217 1.824276 167 192 255
0.294170 0.111074 1.576067 165 190 254
0.376727 -0.313917 1.750188 0 0 37
0.299994 -0.222908 1.681935 184 203 218
-0.065663 0.214068 1.841341 24 39 69
0.145862 -0.107429 1.664042 157 187 212
0.183944 -0.022357 1.589086 51 73 113
0.000000 0.000000 2.000000 145 143 141
0.422000 -0.070632 1.694702 71 100 141
0.543060 -0.042536 1.637679 169 203 231
0.514937 0.008867 1.817991 49 80 109
0.492691 -0.017504 1.619884 29 61 102
0.588371 0.016470 1.623630 51 93 205
0.226577 0.067761 1.580598 16 45 115
0.289690 0.105909 1.572638 28 38 119
0.432667 -0.050300 1.625698 74 101 156
-0.134391 0.198107 1.844474 151 184 218
0.263397 -0.056990 1.620554 97 143 178
0.656353 0.060006 1.670405 77 75 80
0.000000 0.000000 2.000000 0 0 22
0.165416 0.099881 1.807256 145 182 219
0.000000 0.000000 2.000000 70 99 141
0.592183 -0.041599 1.640327 42 73 120
0.452104 -0.036800 1.623487 48 76 121
0.505072 0.020051 1.813298 176 205 232
0.249606 0.067669 1.575417 7 37 105
0.408728 0.329761 1.519667 156 189 214
-0.012094 0.250315 1.840008 0 18 103
0.242052 0.246028 1.830491 174 200 255
0.118703 0.307192 1.530024 13 42 83
0.000000 0.000000 2.000000 49 78 117
0.533371 0.099035 1.852130 6 42 130
0.345973 0.122504 1.584290 35 53 115
0.011520 -0.113399 1.786231 110 95 110
0.116192 -0.099514 1.598405 2 0 24
0.501370 -0.064262 1.636633 59 87 140
0.601477 -0.015122 1.637414 88 115 163
-0.104908 0.237252 1.843563 30 32 116
0.324394 0.292364 1.517378 28 43 75
0.062556 0.113034 1.826245 147 180 223
0.362393 -0.300181 1.743329 88 90 97
0.259167 -0.290809 1.925721 10 15 44
0.221588 -0.445564 2.189477 62 63 64
0.379987 -0.154437 1.688320 125 129 132
0.306257 -0.109517 1.643873 20 28 55
-0.139625 -0.075850 1.863124 62 67 97
0.000000 0.000000 2.000000 82 114 155
0.443599 -0.068038 1.626742 96 124 162
0.181082 -0.033728 1.795302 89 138 171
0.403439 -0.064332 1.620723 37 73 116
0.533165 -0.012218 1.829876 64 100 125
0.591519 -0.050835 1.650797 172 201 243
0.496651 -0.049035 1.628848 112 149 183
0.188688 -0.013327 1.790287 57 108 134
0.447348 -0.037743 1.617511 35 68 105
0.118064 -0.038801 1.602783 157 173 192
0.418110 0.008186 1.753579 52 86 156
0.552013 0.052556 1.854444 184 215 252
0.145052 -0.017172 1.580171 162 174 195
0.568365 0.005945 1.622762 43 78 176
0.517300 0.057573 1.832102 15 50 159
0.511830 0.062090 1.829904 138 178 255
0.530797 0.014149 1.612372 117 153 175
0.000000 0.000000 2.000000 55 82 127
0.170641 0.096255 1.805709 141 176 204
0.176220 0.176441 1.818485 156 194 222
0.051904 0.111998 1.564715 10 18 121
0.259342 0.205517 1.821091 156 197 218
0.151026 0.170799 1.555479 154 191 227
0.312425 0.185019 1.550597 42 60 129
0.134002 -0.234690 1.904315 167 182 204
0.392456 -0.151547 1.863689 190 104 151
0.464390 -0.118243 1.651889 169 51 112
0.427479 -0.067356 1.703263 81 108 155
0.447412 -0.067531 1.624035 70 99 141
0.236954 0.079250 1.580167 39 55 114
0.471489 -0.221558 1.547594 93 87 81
0.530575 -0.065042 1.635686 91 120 153
0.575523 -0.053658 1.651499 99 125 167
0.000000 0.000000 2.000000 0 0 22
0.030980 0.222950 1.835855 147 180 223
-0.093323 -0.538666 1.947489 10 15 36
-0.158255 -0.506778 1.934251 119 133 154
0.054035 -0.421704 1.755573 110 114 113
-0.131072 -0.431441 1.924273 95 102 120
0.269626 -0.395302 1.843917 34 35 71
0.042211 -0.402068 1.759014 28 34 56
0.458532 -0.358195 1.721022 64 80 33
0.262355 -0.279835 1.921778 144 154 180
0.169645 -0.155840 1.873715 183 204 216
0.171474 -0.149047 1.867742 95 97 104
-0.088876 -0.100251 1.864582 63 75 97
0.103643 -0.072414 1.834151 181 205 224
0.496414 -0.066157 1.787182 89 124 181
0.458749 -0.073009 1.738097 165 196 223
0.454441 -0.068053 1.623197 162 196 224
0.445639 -0.046118 1.658321 84 112 157
0.533151 -0.022311 1.618483 71 106 144
0.501028 0.022826 1.811159 67 91 146
0.275843 0.246628 1.831720 21 44 112
0.473245 -0.374001 1.727283 79 65 45
-0.025877 -0.062611 1.853434 111 90 99
0.178410 -0.020144 1.795142 56 100 134
0.550252 0.001044 1.846283 64 92 138
0.041591 0.263923 2.101206 152 187 218
-0.076236 -0.536308 1.949344 104 101 94
0.224934 -0.386611 1.957931 34 35 71
0.440773 -0.119007 1.692298 156 74 115
0.520981 -0.087782 1.665174 159 201 255
0.478875 -0.082470 1.636025 136 169 211
0.121766 -0.037589 1.599577 151 175 187
0.002937 0.248432 1.839166 63 84 169
0.401666 -0.241553 1.751728 98 93 84
0.440819 -0.112589 1.693069 201 94 147
0.110685 0.143742 1.821398 163 197 244
0.377826 -0.242689 1.804145 91 86 91
0.143350 -0.137536 1.857766 164 193 225
0.539915 0.077288 1.851136 92 118 161
0.064376 -0.597437 2.169858 117 121 132
0.006445 -0.569495 1.851339 94 93 108
0.087844 -0.564344 1.845603 59 64 85
-0.078451 -0.563220 2.106511 40 46 51
-0.100875 -0.500301 1.816768 189 195 217
-0.108816 -0.497824 1.818357 186 200 219
-0.115840 -0.488859 1.813829 133 143 159
0.023835 -0.476440 1.805287 41 42 79
-0.123565 -0.470365 1.801394 113 106 105
0.109042 -0.409083 1.720628 180 213 237
-0.037531 -0.399397 1.961922 125 129 130
0.332346 -0.342481 1.740978 135 138 162
-0.076810 -0.349312 1.741138 168 177 192
0.000000 0.000000 2.000000 14 14 59
-0.156174 -0.318687 1.715000 104 107 122
-0.146288 -0.317159 1.725859 123 133 144
-0.173957 -0.301486 1.712242 135 142 160
-0.177638 -0.293023 1.714188 182 194 217
0.432669 -0.226255 1.719469 57 59 66
0.314055 -0.218251 1.683370 198 201 234
0.331270 -0.178478 1.679094 94 94 119
-0.165716 -0.189718 1.561564 52 66 100
0.000000 0.000000 2.000000 82 90 105
0.153420 -0.125600 1.890922 79 81 92
0.072368 -0.159183 1.650319 144 137 143
-0.071118 -0.106220 1.878634 26 71 103
-0.203151 -0.164908 1.572067 66 78 116
-0.199076 -0.157517 1.575397 87 95 158
0.030039 -0.144661 1.594677 40 86 102
-0.167274 -0.142709 1.584332 79 71 145
-0.358688 -0.088345 1.885449 84 116 107
-0.320427 -0.075401 2.027139 56 78 129
0.058032 -0.121354 1.583888 92 81 86
-0.209544 -0.124657 1.594861 118 144 161
0.123282 -0.102326 1.628616 127 145 165
-0.220068 -0.115273 1.599399 112 147 143
-0.206047 -0.111732 1.598299 117 147 167
0.113793 -0.088433 1.607286 14 18 46
-0.192368 -0.103566 1.604123 94 94 102
-0.184309 -0.106168 1.604669 124 143 149
0.553840 -0.077123 1.644136 81 115 169
0.447383 -0.075532 1.628347 159 185 219
0.000000 0.000000 2.000000 59 87 132
-0.193026 -0.094901 1.610516 120 143 150
0.000000 0.000000 2.000000 67 92 141
-0.204000 -0.083119 1.620929 109 147 141
0.268367 -0.073133 1.612066 80 128 175
0.516855 -0.055483 1.628971 87 115 155
0.473607 -0.053703 1.633791 34 66 106
-0.271263 -0.017272 1.876133 58 24 63
0.263756 -0.060330 1.616526 69 120 164
0.559204 -0.045309 1.642315 176 208 241
0.000000 0.000000 2.000000 171 205 231
-0.208979 -0.058032 1.628724 122 86 131
0.515049 -0.037723 1.640999 41 67 118
-0.069172 -0.055880 1.607284 51 89 91
-0.541600 0.030567 2.441904 117 107 133
-0.284120 -0.044373 1.643831 132 120 153
-0.080155 -0.045151 1.604039 80 110 136
0.465671 -0.022479 1.613836 96 130 191
-0.097544 -0.037470 1.612212 57 84 110
-0.018300 -0.040312 1.594045 81 102 137
0.471866 -0.024517 1.616776 168 203 234
-0.014092 -0.030168 1.602246 0 0 47
0.471820 -0.017208 1.622171 62 92 155
-0.094928 -0.029575 1.606359 0 2 37
0.000000 0.000000 2.000000 45 76 122
-0.023600 -0.026235 1.597262 45 55 62
-0.092091 -0.022202 1.603349 117 139 171
0.552296 -0.002238 1.634774 38 71 115
0.000000 0.000000 2.000000 163 191 222
-0.130964 -0.011402 1.609202 162 191 207
0.569827 0.002541 1.625990 44 72 187
0.514661 0.087184 1.895885 169 198 232
0.562237 0.031208 1.616935 19 52 149
0.245860 0.063904 1.582513 170 206 248
0.219204 0.073782 1.576645 26 45 124
0.458459 0.156419 1.906184 170 200 233
0.255581 0.084883 1.576531 6 35 110
-0.243095 0.095484 1.596892 10 9 122
0.000000 0.000000 2.000000 148 192 217
-0.163501 0.104619 1.580693 16 21 130
-0.171326 0.109874 1.577757 158 192 227
-0.203687 0.113617 1.582407 179 203 248
-0.189388 0.113826 1.585889 159 189 240
-0.180786 0.115083 1.580649 153 193 227
0.022021 0.110423 1.564389 166 186 240
-0.176815 0.118738 1.579035 10 42 100
-0.168286 0.120032 1.576580 169 199 236
0.002898 0.119826 1.565415 10 45 86
-0.201988 0.124192 1.580394 168 187 227
-0.180928 0.127761 1.577340 22 59 121
-0.166547 0.130373 1.574242 176 209 252
-0.180476 0.136647 1.572999 12 26 118
-0.202080 0.141299 1.576667 181 204 255
0.350362 0.141274 1.573069 0 0 89
-0.209941 0.150740 1.588908 0 27 108
0.380957 0.152416 1.575729 8 43 109
-0.017839 0.148251 1.558151 16 35 93
0.332922 0.158759 1.564560 25 61 119
0.000000 0.000000 2.000000 32 52 140
0.155524 0.174437 1.547038 183 215 255
0.211402 0.088685 1.567770 14 40 110
-0.050990 0.180237 1.550400 154 182 229
-0.061552 0.180678 1.549802 165 188 237
0.000000 0.000000 2.000000 167 187 220
0.000000 0.000000 2.000000 16 46 109
-0.072111 0.185582 1.550426 160 201 228
-0.053103 0.185231 1.548686 0 37 92
-0.064600 0.186016 1.550023 39 71 148
-0.049505 0.190015 1.547504 171 211 246
-0.076440 0.195671 1.549315 181 201 243
-0.074069 0.198292 1.558115 15 27 119
-0.065657 0.194404 1.547288 174 189 249
-0.278836 0.209899 1.577034 171 202 255
-0.265082 0.207342 1.570826 136 162 231
-0.271839 0.215869 1.571614 118 137 195
-0.075035 0.205714 1.548402 6 37 89
-0.084659 0.205337 1.547802 168 194 235
-0.060251 0.208973 1.545818 179 200 255
-0.049184 0.206770 1.542110 169 192 225
-0.076096 0.211957 1.547323 164 189 229
-0.264500 0.230682 1.573740 169 202 234
-0.271676 0.233314 1.573136 107 139 174
-0.270052 0.237635 1.567228 172 195 244
0.266192 0.224345 1.541299 179 219 255
-0.266656 0.246787 1.587773 0 14 95
0.270744 0.226380 1.541261 0 29 78
0.251618 0.228843 1.543338 174 198 242
0.282801 0.228917 1.540797 8 41 121
0.000000 0.000000 2.000000 27 38 137
0.275693 0.236075 1.537912 22 29 117
0.291129 0.235046 1.541229 169 180 234
-0.124216 -0.482837 1.818232 181 206 228
-0.070920 -0.472434 1.804154 175 205 235
0.271576 -0.384762 2.794734 37 40 65
0.287193 -0.378025 1.849361 50 52 86
0.332866 -0.284084 1.946974 40 39 52
0.339014 -0.245769 2.278494 100 114 141
0.000000 0.000000 2.000000 165 180 201
0.000000 0.000000 2.000000 169 186 205
0.000000 0.000000 2.000000 139 44 95
-0.174516 -0.135897 1.593310 64 72 136
-0.157962 -0.120298 1.598309 108 135 162
0.044714 -0.115151 1.582920 177 183 200
-0.207228 -0.109429 1.604451 121 149 172
0.451574 -0.069978 1.617410 110 139 190
-0.160183 -0.081921 1.623768 112 137 158
0.406675 -0.064907 1.623189 65 97 135
0.020151 -0.074309 1.620089 156 183 226
-0.216671 -0.073082 1.620935 115 139 169
0.553400 -0.033571 1.643794 79 106 148
-0.075321 -0.052398 1.613032 109 140 143
-0.089913 -0.032019 1.604153 0 1 24
-0.015268 -0.030004 1.595216 0 1 36
0.000000 0.000000 2.000000 176 213 255
0.000000 0.000000 2.000000 36 59 128
-0.182687 0.111165 1.591653 27 40 117
-0.110297 0.388696 2.274070 24 44 95
-0.164729 0.142616 1.581848 32 42 123
0.092140 0.139428 1.554290 154 183 232
-0.103175 0.248649 1.879835 22 36 108
-0.239038 0.179632 1.579756 146 182 215
-0.010878 -0.527354 1.831244 100 98 107
0.198179 -0.489423 1.841738 15 17 48
-0.098626 -0.496832 1.808506 186 213 250
-0.074283 -0.494553 1.814329 186 213 242
-0.058662 -0.434103 1.769982 179 194 215
-0.110189 -0.451466 1.970878 70 67 69
-0.094744 -0.427890 1.773771 158 180 197
-0.038786 -0.424199 1.746989 187 207 231
0.035877 -0.399523 1.750355 133 134 120
0.346691 -0.373727 0.093699 66 71 95
0.370647 -0.314810 1.760100 0 5 48
0.432476 -0.242233 1.710486 0 3 30
-0.109805 -0.242760 1.677435 79 75 90
-0.027154 -0.186351 1.666386 162 190 220
0.008839 -0.173740 1.656589 150 179 209
-0.013495 -0.167314 1.653879 65 56 76
0.321553 -0.155951 1.669806 25 27 52
0.022647 -0.151345 1.607502 119 120 125
0.037326 -0.131794 1.586310 170 180 181
0.488041 -0.094288 1.654955 121 152 193
0.489779 -0.080249 1.640200 86 113 156
0.120468 -0.075231 1.699147 148 147 163
0.399157 -0.067391 1.621549 93 123 168
0.217911 -0.058448 1.603349 171 175 177
0.451553 -0.040527 1.617643 97 128 169
0.000000 0.000000 2.000000 0 1 36
0.486365 -0.019083 1.617368 94 120 171
0.514049 -0.018624 1.619851 97 140 199
-0.087829 -0.031305 1.603316 2 3 23
0.561718 -0.006141 1.637224 98 124 165
-0.022167 -0.027565 1.565264 0 10 42
0.543768 -0.002753 1.616536 172 204 244
0.517432 0.000935 1.615413 100 130 172
-0.134058 -0.007821 1.615091 147 187 213
0.643870 0.032152 1.639506 131 164 198
0.297946 0.031848 1.599003 66 88 114
0.203984 0.058227 1.583531 35 48 134
-0.041471 0.068286 1.584812 31 36 109
-0.001266 0.087385 1.579984 107 119 186
0.041938 0.080129 1.576939 26 40 110
-0.001443 0.083921 1.572209 19 41 109
0.033712 0.095000 1.570153 151 181 217
-0.267854 0.205891 1.902430 15 27 132
0.050186 0.113023 1.566485 23 36 123
0.369646 0.118309 1.578484 45 64 142
0.305819 0.243095 1.850924 184 214 255
0.119270 0.154443 1.554257 19 50 115
0.169492 0.181060 1.548835 40 57 122
-0.015873 -0.412482 1.746543 5 13 48
0.000000 0.000000 2.000000 66 62 60
-0.152446 -0.294244 1.686690 178 206 241
0.323912 -0.214238 1.718682 128 120 124
-0.028390 -0.188824 1.663487 165 194 226
-0.092774 -0.145740 1.645279 21 60 93
0.060009 -0.134841 1.602805 171 190 204
-0.160672 -0.128798 1.609714 18 19 42
0.000000 0.000000 2.000000 168 187 201
-0.159708 -0.075104 1.646886 33 9 43
0.021957 -0.073778 1.609229 0 0 9
0.134916 -0.073098 1.612705 158 169 189
0.670109 -0.006017 1.665160 178 212 242
0.000000 0.000000 2.000000 1 6 12
0.523621 0.001117 1.618873 95 123 162
0.597759 0.021938 1.635361 87 114 144
-0.127657 0.083474 1.582239 25 40 82
0.041673 0.082604 1.574152 33 49 98
-0.159548 0.162389 1.624005 156 194 235
-0.122244 0.217866 1.758589 146 181 229
0.071380 0.256060 1.843869 85 112 184
0.178853 -0.491542 1.886671 8 18 45
-0.078343 -0.487660 1.796953 187 213 244
-0.011687 -0.418854 1.970920 0 6 58
0.093329 -0.400900 1.781958 174 201 236
0.329609 -0.328712 1.716799 5 12 40
0.367529 -0.234030 1.698670 150 177 207
0.219729 -0.165502 1.610422 163 196 228
0.380376 -0.165079 1.674249 137 136 132
0.044440 -0.158823 1.597238 24 41 52
0.023934 -0.111198 1.962751 25 60 83
0.110775 -0.080043 1.590023 0 0 19
0.177007 -0.069381 1.597132 4 20 72
0.000000 0.000000 2.000000 173 203 227
-0.071826 -0.030043 1.606776 0 0 12
0.492022 -0.022932 1.621878 94 126 164
-0.032479 -0.031809 1.590397 0 2 13
-0.115513 0.004030 1.603993 23 66 94
0.383350 0.081891 1.584268 43 62 95
0.372923 0.148388 1.576646 38 59 104
-0.139138 -0.181331 1.900126 167 195 224
0.318137 -0.170215 1.687987 3 18 58
-0.009695 -0.168520 1.627065 74 70 77
0.449136 -0.134638 1.668046 152 196 226
0.108798 -0.123574 1.637961 36 81 120
0.000000 0.000000 2.000000 37 91 125
0.147136 -0.102990 1.612526 160 184 201
0.136295 -0.036223 1.591490 159 182 197
0.659652 0.006123 1.688680 178 208 241
0.597811 0.021039 1.702112 177 216 251
0.602155 0.064541 1.626806 175 208 241
-0.076084 -0.436043 1.787532 20 40 59
0.341210 -0.314505 1.733485 121 122 132
0.516985 -0.081367 1.646005 84 120 178
-0.224471 -0.093440 1.608379 83 115 120
0.271009 -0.074606 1.617081 100 150 187
-0.253373 -0.130840 2.567470 104 120 137
0.000000 0.000000 2.000000 86 114 154
0.000000 0.000000 2.000000 96 120 175
-0.286625 -0.041664 1.637315 124 89 138
0.119221 -0.037492 1.594301 161 168 194
0.000000 0.000000 2.000000 45 78 129
0.000000 0.000000 2.000000 58 97 190
0.567390 0.029430 1.622601 9 43 118
-0.108377 0.151779 1.875623 4 14 105
0.187320 0.215682 1.551570 58 79 145
0.021052 0.090184 1.569291 17 43 101
-0.159912 0.141434 1.569740 12 33 106
-0.330035 0.214814 1.862643 148 190 228
-0.166846 0.127006 1.575617 80 123 156
-0.193888 0.131447 1.579768 11 20 122
-0.347391 0.238608 1.862203 167 204 248
-0.235139 0.169768 1.571671 13 26 107
-0.132588 0.166191 1.566098 28 27 127
-0.231565 0.180555 1.580837 9 37 86
-0.078887 0.189961 1.555005 162 184 234
0.142427 0.310293 1.873111 0 29 85
0.250638 0.307459 1.856080 12 40 114
-0.049934 0.201637 1.545820 164 194 221
0.000000 0.000000 2.000000 38 50 144
-0.008538 0.235495 1.531673 34 34 134
-0.164101 -0.440948 1.951920 78 76 72
-0.027477 -0.174278 1.660144 61 61 73
0.171761 -0.110528 1.595573 105 100 122
0.000000 0.000000 2.000000 117 147 183
0.518543 -0.048405 1.635426 81 109 165
0.690245 0.018172 1.942897 100 126 177
0.000000 0.000000 2.000000 117 170 208
0.542366 -0.018766 1.637377 99 124 163
0.000000 0.000000 2.000000 35 52 107
-0.136054 0.167567 1.565413 31 31 127
0.105723 0.224412 1.540336 35 43 126
0.056376 -0.562307 1.867471 120 114 115
-0.039197 -0.422253 1.796002 0 3 37
0.356716 -0.242622 1.710194 168 187 209
0.424368 -0.223622 1.710307 0 0 26
0.539339 -0.073939 1.654315 96 121 161
0.181737 -0.066387 1.615108 0 7 68
-0.082348 -0.042753 1.616362 50 90 115
0.600258 0.025796 1.639607 26 61 136
-0.131787 0.080458 1.585815 17 36 97
-0.119077 0.186545 1.853125 9 29 109
-0.335547 0.213188 1.862812 155 186 222
0.006609 0.116192 1.566851 30 53 90
0.035829 0.114819 1.561658 12 26 109
-0.162388 0.139698 1.571535 36 48 118
0.000000 0.000000 2.000000 31 41 120
-0.078505 -0.421023 1.788605 97 95 100
0.207355 -0.099181 1.634369 180 195 201
0.000000 0.000000 2.000000 38 66 111
0.670091 0.053550 1.936919 177 208 239
0.279190 0.091548 1.573699 165 197 248
-0.133212 -0.168047 1.897058 167 190 226
0.000000 0.000000 2.000000 170 190 209
-0.015556 0.140742 1.554965 150 184 231
-0.020968 -0.414930 1.786533 17 17 60
0.259388 0.039990 1.601148 116 153 189
-0.046440 -0.379344 1.955863 68 69 87
0.000000 0.000000 2.000000 143 148 178
0.375931 -0.255556 1.352282 71 83 98
0.057315 -0.146074 1.598863 188 197 206
-0.194418 -0.124805 1.592412 86 113 126
0.572506 0.004621 1.925874 44 70 119
0.227371 0.065006 1.578023 27 58 130
0.020039 0.098757 1.564089 186 213 247
0.285826 0.105566 1.572072 26 34 123
0.198394 0.259037 1.995387 169 196 241
-0.359918 0.200390 1.863729 4 23 115
0.000000 0.000000 2.000000 161 188 233
0.183292 0.119952 1.563034 157 190 232
-0.156062 0.243614 1.855802 22 36 108
0.183415 0.119437 1.561438 162 198 242
-0.062188 0.206522 1.550611 158 191 224
-0.043225 0.211795 1.547434 24 36 119
0.273616 0.241217 1.540312 164 200 242
-0.370900 -0.107609 1.887553 88 90 158
-0.064088 0.163673 1.847821 13 26 112
0.015511 0.100619 1.566656 21 32 122
0.038801 0.110546 1.578093 151 186 210
0.098894 0.198203 1.834449 44 59 109
-0.017266 0.151076 1.556631 22 45 89
0.225307 -0.247006 1.681344 92 97 112
0.075701 -0.140567 1.591374 176 202 199
0.117746 -0.138572 1.580070 7 42 79
0.409947 -0.069788 1.649572 100 122 169
0.246371 0.175165 1.827973 43 65 105
-0.206795 0.110994 1.585240 2 15 117
0.181131 0.107743 1.564192 44 59 109
0.091334 0.209030 1.836576 58 100 157
0.139003 0.166522 1.565985 38 57 125
-0.185907 0.290265 1.857408 19 40 124
0.201571 0.197070 1.547820 151 191 228
0.000000 0.000000 2.000000 96 89 87
-0.026812 -0.070722 1.862255 116 80 88
0.309039 -0.060554 1.929056 121 102 107
0.145105 -0.025667 1.581322 172 188 202
-0.168353 0.157064 1.857261 30 42 83
0.057270 0.139414 1.838395 44 57 129
0.000000 0.000000 2.000000 151 182 227
-0.117102 0.173770 1.560726 161 193 236
0.000000 0.000000 2.000000 168 203 233
0.079553 -0.150001 1.592408 7 53 83
0.002903 -0.567945 1.844399 48 50 56
-0.065669 -0.541982 1.985967 107 109 116
0.000000 0.000000 2.000000 232 241 255
-0.178833 -0.063197 1.625910 121 86 120
-0.135034 0.078303 1.588763 0 22 79
0.020913 0.113340 1.569715 166 186 240
0.140860 0.148050 1.553766 4 28 110
0.337997 0.260728 1.902453 32 52 140
-0.184568 0.288480 1.857348 11 28 115
0.346884 0.281641 1.902011 22 38 121
0.203996 0.205811 1.538763 38 50 144
0.225731 -0.303483 1.707039 147 148 157
0.184210 -0.105090 1.943123 100 124 171
-0.171803 0.132667 1.572714 156 188 230
0.000000 0.000000 2.000000 22 36 108
0.367864 0.263791 1.902535 161 192 245
-0.073214 0.206204 1.553610 13 32 91
-0.066139 0.208126 1.546401 144 183 208
0.252095 -0.163170 1.654090 186 207 227
0.000000 0.000000 2.000000 0 10 42
0.145485 0.149377 1.560545 47 68 157
-0.075312 -0.477834 1.799831 177 208 239
0.127418 0.204256 1.833817 101 116 172
-0.131750 0.170829 1.571693 27 42 73
-0.327094 -0.375073 1.582031 10 15 54
0.154514 0.008795 1.783144 173 203 227
-0.110809 0.218005 1.854855 22 47 88
0.452386 -0.116353 1.647669 102 57 92
0.038310 -0.137120 1.592660 187 200 201
0.453761 -0.070912 1.619558 36 65 114
0.386958 -0.027059 1.806684 78 104 153
0.000000 0.000000 2.000000 171 205 231
0.438020 0.030761 1.850609 96 130 191
0.000000 0.000000 2.000000 45 76 122
-0.342288 0.200368 1.863409 146 160 252
0.292329 0.214657 1.542018 16 31 130
0.274249 0.226916 1.541342 159 196 242
0.250913 0.229873 1.540885 174 198 242
0.259814 0.231515 1.539217 27 38 137
0.000000 0.000000 2.000000 139 44 95
0.178299 0.131795 1.815231 162 197 238
0.181376 0.120566 1.561181 156 191 230
0.162645 0.146023 1.555227 32 52 141
0.000000 0.000000 2.000000 66 87 160
0.490356 -0.144443 1.822594 168 197 233
0.304199 0.016890 1.584476 65 106 129
0.231120 0.063005 1.580062 0 18 95
-0.139453 0.033421 1.861632 0 4 14
0.000000 0.000000 2.000000 62 84 132
0.000000 0.000000 2.000000 59 88 131
0.491133 -0.049377 1.630236 173 209 243
-0.147223 -0.056745 1.638758 98 84 92
0.000000 0.000000 2.000000 91 119 165
0.000000 0.000000 2.000000 66 93 148
0.000000 0.000000 2.000000 67 95 141
0.000000 0.000000 2.000000 0 16 93
0.000000 0.000000 2.000000 0 28 95
0.210601 0.089665 1.570083 17 48 114
0.237280 0.181083 1.828879 18 49 103
0.172543 0.180831 1.540850 16 46 109
0.211674 0.207936 1.547463 161 190 230
0.000000 0.000000 2.000000 75 102 147
-0.092013 -0.029638 1.611946 0 1 24
0.601850 0.086073 1.939759 176 213 255
0.149956 -0.008340 1.588664 113 109 132
0.194958 0.124986 1.561702 35 52 107
-0.014513 0.138140 1.559032 150 181 226
0.000000 0.000000 2.000000 116 97 107
0.448651 -0.080669 1.636323 83 106 165
0.126728 -0.088458 1.627566 148 147 163
-0.246023 -0.065718 1.842617 60 109 138
-0.061620 0.206670 1.848812 23 36 123
0.092075 0.123745 1.562223 34 44 80
0.655068 0.059396 1.656905 71 67 72
0.081361 0.056733 1.571694 18 37 63
0.226146 0.081328 1.569531 30 51 114
0.448798 -0.076264 1.627958 159 185 219
0.000000 0.000000 2.000000 59 87 132
0.000000 0.000000 2.000000 44 71 114
0.559353 -0.030294 1.623374 68 100 131
0.000000 0.000000 2.000000 0 6 44
0.189710 0.255887 1.995992 30 41 125
0.000000 0.000000 2.000000 105 100 122
0.509497 0.068810 1.893517 89 119 154
0.351724 0.148493 1.569654 69 83 152
0.125527 0.173055 1.566222 151 186 222
0.967277 0.692083 2.674631 171 188 208
0.214285 -0.056505 1.629152 133 119 129
0.266738 0.035297 1.592394 132 171 210
0.196956 0.234566 1.936575 181 207 255
0.000000 0.000000 2.000000 92 118 154
0.317410 -0.265845 1.889404 5 17 66
0.311258 -0.210011 1.686491 177 190 208
0.000000 0.000000 2.000000 109 136 182
0.537166 -0.068083 1.658626 55 80 129
0.499722 -0.068278 1.641064 164 191 236
0.560494 -0.044776 1.648739 176 208 241
0.000000 0.000000 2.000000 91 119 165
0.000000 0.000000 2.000000 95 121 163
0.000000 0.000000 2.000000 152 188 221
0.147237 0.154259 1.822811 0 27 86
0.000000 0.000000 2.000000 0 28 95
-0.021072 0.344572 1.854651 15 35 97
0.237815 0.227080 1.550348 19 27 112
0.000000 0.000000 2.000000 75 102 147
0.571113 0.022470 1.621549 55 83 156
0.344850 0.128523 1.536412 31 45 133
0.000000 0.000000 2.000000 28 33 47
0.000000 0.000000 2.000000 173 55 116
0.250273 -0.058908 1.711976 95 145 181
0.567268 -0.043599 1.641015 176 206 243
0.479315 0.005865 1.877657 164 200 225
0.487525 -0.025285 1.617958 94 123 162
0.000000 0.000000 2.000000 40 54 117
0.301055 -0.127793 1.641951 90 123 156
0.646641 0.069682 1.658744 81 79 76
0.612689 0.100967 1.805988 174 203 236
0.000000 0.000000 2.000000 43 62 95
0.357711 0.022299 1.603108 38 57 89
0.485131 -0.361719 1.734361 64 85 28
0.291276 -0.183441 1.490553 82 90 105
-0.079403 -0.080018 1.872663 187 188 199
0.552716 -0.069884 1.656851 172 205 230
0.432915 -0.032722 1.844149 59 87 132
0.455809 -0.028959 1.862874 44 71 114
0.472671 -0.068503 1.636405 87 110 160
0.466966 0.006445 1.868964 173 209 243
0.568068 -0.023478 1.630223 83 106 152
0.531173 -0.026749 1.631346 168 202 231
0.455719 0.048588 1.862727 66 104 160
0.567272 0.076619 1.923750 163 191 222
0.581160 0.081588 1.930200 125 169 248
0.573499 0.016217 1.628847 117 162 255
0.523002 0.093637 1.899984 40 69 128
0.226872 0.086139 1.798709 0 6 44
-0.104536 0.177942 1.851885 148 192 217
0.321439 0.125974 1.580654 30 53 139
0.036784 0.267288 1.846543 32 52 140
0.382113 -0.154511 1.656716 97 95 117
0.554880 0.000335 1.930652 139 163 210
0.447585 -0.013997 1.855363 96 122 165
0.230835 0.063631 1.582535 36 59 128
0.237235 0.190778 1.831334 167 195 233
0.355685 -0.315285 1.748918 85 90 105
0.432246 -0.239280 1.723044 0 3 30
0.187313 -0.110753 1.619673 78 91 123
0.461054 -0.019850 1.642103 128 160 214
0.158421 0.119823 1.813689 18 34 145
0.093897 0.225151 1.909600 161 192 231
-0.284921 0.260563 1.860436 152 181 230
0.351280 -0.321977 1.738750 140 138 143
0.381969 -0.223068 1.928515 96 89 87
0.229735 -0.227724 1.697335 150 146 144
0.584775 0.085263 1.684806 126 149 168
0.062466 -0.566353 1.849203 41 48 65
0.248276 -0.440026 1.901179 108 116 134
-0.072321 -0.439478 1.784436 49 84 51
0.226184 -0.442696 1.913537 28 22 43
-0.044120 -0.413079 1.762863 57 58 69
-0.330435 -0.415784 1.612086 28 41 75
0.026053 -0.401290 1.760823 31 32 55
0.002572 -0.402369 2.133034 11 20 50
0.471367 -0.368233 1.686718 60 21 8
-0.380939 -0.363111 1.586584 198 222 253
0.455688 -0.350261 1.676352 79 91 28
-0.405007 -0.356467 1.577487 113 141 170
-0.321080 -0.349775 1.568733 45 50 97
0.340530 -0.314648 1.748810 131 141 157
0.000000 0.000000 2.000000 159 168 183
-0.167021 -0.310344 1.712581 174 184 202
0.000000 0.000000 2.000000 116 129 144
0.292208 -0.219051 1.656743 88 87 100
0.308742 -0.210146 1.685137 69 67 79
0.416815 -0.189285 1.687178 61 60 78
0.415009 -0.168773 1.679668 13 18 46
-0.230328 -0.168459 1.570105 137 139 170
0.400398 -0.121840 1.933424 139 135 135
-0.305853 -0.161714 1.575514 131 139 172
-0.271986 -0.162892 1.572278 91 81 128
-0.208097 -0.161596 1.576093 74 72 128
-0.310099 -0.155539 1.577745 87 66 119
-0.241528 -0.149901 1.579465 110 95 133
-0.234386 -0.149377 1.579212 110 108 149
-0.277268 -0.146792 1.578620 100 88 136
-0.287923 -0.144950 1.581672 135 143 181
-0.285905 -0.099824 1.861017 84 117 107
-0.338090 -0.140539 1.585057 112 102 155
-0.296364 -0.142211 1.583688 96 93 139
-0.158777 -0.140795 1.592567 101 108 125
0.457653 -0.127790 1.649293 180 174 201
0.036693 -0.132807 1.588650 98 93 106
-0.377981 -0.130475 1.595417 102 100 129
0.005550 -0.078453 1.897378 125 143 139
0.586344 -0.078919 1.934416 116 82 116
-0.403217 -0.120682 1.598897 86 76 88
-0.374455 -0.118309 1.602072 103 96 120
-0.296527 -0.112891 1.600101 113 110 128
0.042151 -0.116112 1.582775 82 82 103
-0.547407 -0.052741 1.945550 96 90 111
-0.388905 -0.109192 1.611151 99 89 115
0.116522 -0.105910 1.606461 121 115 128
-0.275252 -0.104914 1.600207 67 85 130
-0.367105 -0.064689 1.882203 80 85 130
-0.220337 -0.097381 1.620626 118 150 145
-0.298781 -0.094419 1.609846 102 82 92
-0.421482 -0.086149 1.622481 70 100 74
-0.312594 -0.082497 1.616842 105 103 106
-0.152017 -0.085870 1.615203 96 105 118
-0.402015 -0.077912 1.629292 64 62 121
-0.370897 -0.078494 1.615557 100 84 113
-0.332479 -0.076637 1.622227 118 153 149
-0.639955 0.111965 2.437618 116 134 136
-0.151639 -0.071355 1.637493 41 3 45
0.559208 -0.069001 1.657365 83 121 183
-0.422054 -0.070364 1.631777 77 99 105
-0.280859 -0.073523 1.617262 86 106 115
0.441784 -0.076311 1.642094 177 211 242
-0.399937 -0.068460 1.631383 127 141 143
-0.329668 -0.067085 1.612429 42 81 60
-0.429264 -0.059594 1.641003 120 136 151
-0.328429 -0.061051 1.631714 112 143 137
0.566108 -0.058784 1.652506 120 148 187
-0.321586 -0.054653 1.636203 43 70 64
-0.414969 -0.053627 1.641856 86 69 80
-0.388968 -0.052482 1.638872 53 84 87
0.431508 -0.059962 1.623959 177 202 239
-0.439796 -0.051065 1.641958 109 140 133
0.512317 -0.052747 1.630635 75 104 146
-0.415023 -0.046899 1.645168 116 137 145
0.663184 0.003939 1.942067 44 68 111
0.544842 -0.053100 1.643245 82 117 174
0.000000 0.000000 2.000000 74 105 118
0.513210 0.007602 1.921542 69 100 146
0.000000 0.000000 2.000000 94 132 188
0.496763 -0.035349 1.627769 83 113 157
0.520546 -0.030974 1.631611 79 108 151
-0.070969 0.024853 1.857604 70 76 87
-0.012778 0.014018 1.805770 66 113 147
0.482888 -0.021277 1.619395 61 86 123
0.488318 -0.017174 1.612657 76 107 145
0.000000 0.000000 2.000000 58 67 97
0.525750 0.065340 1.918155 135 167 230
0.579740 0.078369 1.932847 88 114 157
-0.388212 0.025310 1.648330 152 163 176
-0.391456 0.073208 1.632333 99 111 132
-0.535098 0.158344 1.922815 160 172 188
-0.133654 0.077319 1.580501 13 28 100
0.046034 0.077938 1.575111 26 37 110
0.596668 0.085025 1.630879 112 116 118
0.222272 0.080423 1.576326 175 207 241
-0.334175 0.102547 1.595467 14 36 83
-0.209283 0.112756 1.592405 12 33 100
-0.195174 0.132473 1.576527 24 42 109
0.000000 0.000000 2.000000 178 205 252
-0.281857 0.244951 1.901515 191 204 255
-0.123847 0.166850 1.577483 27 37 128
0.118580 0.151315 1.549828 27 49 135
-0.358715 0.285464 1.905413 10 19 107
-0.224210 0.280418 1.894539 167 191 246
-0.398299 0.205377 1.593628 113 116 134
-0.425128 0.214474 1.601044 55 81 100
-0.403907 0.208584 1.586324 160 186 203
-0.305991 0.207137 1.574869 8 34 104
-0.274080 0.208841 1.573013 50 76 139
-0.413252 0.217723 1.592813 66 120 120
-0.287179 0.209466 1.572572 17 53 106
-0.299054 0.213957 1.571427 160 182 233
-0.060981 0.202357 1.547719 169 201 223
-0.050028 0.203850 1.543120 163 193 214
-0.281166 0.219068 1.569667 0 13 76
0.000000 0.000000 2.000000 24 51 106
-0.298599 0.221562 1.573333 18 27 105
0.000000 0.000000 2.000000 150 158 233
-0.293831 0.229749 1.574081 186 196 255
-0.284466 0.226340 1.568926 172 204 247
-0.040632 0.213539 1.546205 3 26 102
0.097640 0.216927 1.541944 46 59 118
-0.292674 0.239051 1.571342 169 190 228
-0.009466 0.228340 1.534407 149 186 213
0.243246 0.223067 1.539123 25 40 98
-0.001465 0.229268 1.533196 14 46 96
0.276201 0.228914 1.541928 168 209 246
-0.376927 0.265950 1.577588 57 118 86
0.265785 0.236743 1.534825 34 55 127
0.260773 0.241808 1.545096 175 206 243
0.284746 0.241448 1.540220 4 23 101
-0.220935 0.259884 1.557447 5 40 103
0.287949 0.244589 1.542877 181 213 252
0.266303 0.250618 1.535909 42 80 154
-0.423364 0.288090 1.581711 132 113 125
0.289043 0.253217 1.540174 173 189 248
-0.222927 -0.487052 1.645049 169 163 208
-0.134359 -0.449982 2.371206 177 190 197
-0.393567 -0.380030 1.634851 126 147 184
0.492302 -0.357682 1.698316 81 95 51
0.323878 -0.219973 1.705889 174 196 211
0.276615 -0.216051 1.709155 132 143 161
0.000000 0.000000 2.000000 170 193 217
-0.096278 -0.149836 1.657680 45 54 68
0.116437 -0.141204 1.596824 115 125 143
0.158153 -0.100193 1.775759 182 199 208
-0.292519 -0.113540 1.597667 117 107 122
-0.346008 -0.042723 2.002271 79 73 130
0.513418 -0.062933 1.641416 171 206 230
-0.395252 -0.019282 1.789514 125 131 164
0.413345 -0.059714 1.616959 173 204 225
0.490937 -0.051915 1.635959 56 86 141
0.516380 -0.047888 1.633257 84 115 160
0.203709 -0.044220 1.592273 60 99 152
0.689404 -0.117606 1.951057 44 77 113
0.346180 0.047130 1.874549 51 99 139
0.282902 0.206407 1.891687 53 72 115
-0.306849 0.234083 1.904391 26 39 111
-0.198433 0.140246 1.576887 149 182 216
-0.238548 0.178553 1.571808 147 182 221
0.318730 0.192767 1.556721 34 54 123
-0.279457 0.215509 1.573360 160 180 221
-0.058482 0.199676 1.549663 25 33 125
0.201041 0.209354 1.541799 52 66 138
-0.276650 0.232454 1.569973 4 30 91
0.109140 0.212940 1.538433 162 190 238
0.094820 0.213731 1.546180 51 71 118
0.091426 0.223414 1.539932 157 189 230
0.336254 0.368427 1.891212 166 193 221
0.076077 0.250660 1.537877 29 43 124
0.262902 0.248072 1.554227 173 192 243
0.593458 -0.532165 1.739572 180 196 211
-0.189482 -0.481400 2.063254 118 111 109
-0.088931 -0.430154 1.794403 194 207 215
0.059618 -0.423207 1.804062 49 48 70
-0.374062 -0.407972 1.633211 23 40 78
0.534213 -0.374500 2.311723 79 34 22
-0.327771 -0.377224 1.594330 43 48 100
0.456791 -0.356215 1.676954 107 119 57
0.376141 -0.314202 1.734619 0 1 33
-0.141272 -0.311683 1.533313 155 176 202
0.227235 -0.242693 1.868546 187 202 222
0.408206 -0.215347 1.984481 86 83 102
